-18.213831 -3.832738 0.081622
-18.992187 -3.423082 -0.900404
-15.378336 -3.910936 1.289175
-15.247231 -3.916653 1.924794
-18.826751 -5.195570 1.630582
-18.995548 -4.142932 0.139801
-18.580465 -5.513404 1.750266
-20.129794 -5.080247 -1.081522
-17.601333 -5.876854 1.596645
-20.816384 -5.127356 -0.989556
-20.697955 -6.310792 -1.357887
-19.735916 -5.862124 -3.531853
-21.561912 -6.033322 -2.328571
-22.004560 -6.535991 -2.195875
-21.630807 -7.305894 -2.371935
-21.634383 -6.816382 -3.128746
-20.068224 -5.430666 -4.381131
-20.707400 -7.250325 -2.450825
-19.933680 -6.955766 -3.601322
-20.167838 -7.626292 -0.102016
-20.944137 -7.629886 -2.548945
-20.906330 -7.852024 -2.884196
-20.514754 -7.719670 -3.376119
-19.950951 -6.958207 -4.050147
-19.246523 -7.017366 -3.475610
-18.441043 -8.059501 -1.837131
-20.008302 -8.332789 -4.264062
-19.525531 -8.816150 -4.978052
-19.236309 -8.850377 -5.246194
-19.563647 -9.605317 -4.673806
-13.740058 -8.021152 -2.052719
-17.312431 -8.214259 -3.421496
-18.347641 -9.088607 -5.679059
-19.227059 -9.064969 -5.284358
-18.440103 -8.762849 -5.873822
-18.555859 -9.567735 -5.975151
-17.756540 -7.930672 -6.206025
-17.371588 -9.246985 -6.177324
-16.440769 -9.647946 -5.203105
-16.006188 -9.653980 -6.474980
-16.455673 -9.552790 -6.946683
-15.999194 -9.773548 -7.120196
-16.040262 -9.510077 -6.920114
-15.398227 -9.605971 -7.327381
-14.201666 -8.822950 -5.677999
-9.935948 -8.226919 -5.276172
-14.725910 -9.898011 -7.374069
-15.398352 -9.541089 -6.281766
-15.493024 -9.921637 -8.947185
-15.458566 -9.514465 -7.554199
-15.547286 -9.917562 -8.760650
-14.499868 -9.313932 -9.265411
-15.018841 -8.717251 -8.871567
-13.700813 -8.445635 -9.256919
-12.393413 -8.439485 -6.713605
-13.708320 -7.953712 -9.204671
-13.654885 -8.485144 -9.564483
-14.276091 -9.092361 -9.659325
-13.607065 -8.619012 -8.526797
-14.696262 -8.242456 -11.209772
-13.979217 -8.822356 -8.729190
-14.386088 -9.996877 -9.679014
-14.076590 -9.770473 -8.280935
-15.209255 -10.664200 -8.948785
-15.980326 -10.365321 -9.689829
-15.806906 -9.869350 -10.770825
-14.298928 -11.111992 -7.662005
-15.608781 -11.879669 -11.099582
-15.181252 -11.665480 -10.468542
-15.475219 -12.691506 -8.789538
-15.698628 -12.440468 -9.950408
-14.114701 -12.025359 -9.941062
-13.741728 -11.607114 -9.476159
-13.857223 -11.390580 -10.534694
-14.972079 -11.445691 -10.368506
-15.327139 -12.435260 -10.812575
-13.024087 -11.050110 -7.216250
-14.518175 -11.892711 -10.541050
-11.512183 -11.745847 -7.833325
-13.303499 -13.984607 -9.014960
-14.764116 -13.907586 -8.960336
-15.484404 -14.807239 -10.516252
-14.655796 -13.964208 -10.756729
-16.357318 -15.000841 -9.892987
-15.691894 -15.377550 -9.733703
-16.158424 -15.713577 -10.072983
-15.322371 -15.673749 -9.050396
-15.677157 -16.850603 -9.831321
-15.461894 -17.113347 -9.558392
-14.822285 -16.717992 -8.648127
-12.794693 -17.306492 -9.392132
-14.126515 -17.445574 -9.773528
-14.580846 -18.516562 -8.856875
-14.533176 -18.245001 -9.480730
-14.128234 -18.108248 -9.278268
-13.138580 -17.665511 -8.380315
-13.458869 -17.661925 -9.499566
-12.984775 -16.649456 -7.470936
-13.534348 -18.398874 -8.738053
-13.362531 -18.670064 -8.716995
-13.097044 -18.200898 -8.700026
-12.022996 -18.410247 -9.049186
-12.986064 -17.463163 -6.793420
-12.934216 -18.971260 -8.556660
-12.231051 -17.126797 -7.121487
-9.872248 -16.136577 -3.794265
-11.702623 -17.656274 -8.735673
-12.178418 -16.700385 -9.884847
-11.313668 -16.394497 -10.412170
-10.760623 -16.077521 -10.540956
-9.602633 -15.908830 -9.761112
-10.523333 -16.612537 -9.900051
-9.203814 -15.454389 -10.186201
-7.705379 -14.387885 -7.697908
-8.385374 -15.768585 -7.699135
-8.522498 -14.809296 -10.756186
-7.544577 -14.383652 -5.028768
-8.615944 -17.075619 -9.334162
-7.716787 -16.842119 -8.866534
-8.301604 -17.020771 -10.355791
-7.524551 -18.187676 -6.774051
-7.817831 -15.837647 -8.913933
-8.638873 -17.808847 -9.850555
-8.090013 -16.759717 -7.776718
-8.541286 -18.236187 -9.710826
-8.194127 -18.173693 -10.480018
-8.185888 -17.340563 -11.181229
-7.292935 -17.556413 -7.766756
-7.750241 -17.502042 -10.586694
-8.106002 -16.504309 -10.720246
-6.593705 -17.492911 -10.558894
-7.445016 -19.004043 -9.973808
-8.114342 -19.659233 -11.949165
-7.937651 -20.110614 -10.998733
-7.927760 -19.702575 -11.405200
-6.145275 -17.127374 -9.632839
-7.796382 -19.384448 -11.404264
-5.693083 -19.247998 -9.355930
-7.290909 -19.357360 -10.064045
-6.098892 -19.836439 -9.976279
-6.145537 -19.223739 -10.980313
-5.633406 -19.574264 -11.137585
-6.304994 -19.013024 -11.002220
-6.076719 -19.209528 -11.483106
-4.941198 -18.010994 -10.863886
-5.106277 -17.860851 -10.815812
-5.629178 -17.050345 -8.803108
-3.693791 -16.472631 -7.812600
-5.644583 -19.391456 -9.753576
-5.835138 -19.907924 -10.438433
-5.442454 -18.749440 -10.976111
-6.134257 -20.437287 -10.029046
-6.495073 -20.460386 -10.538193
-7.301378 -21.235258 -10.263283
-6.539644 -20.893513 -10.204184
-7.051136 -20.772481 -9.939931
 -8.094891 -20.472649 -7.594974
 -6.659567 -21.100492 -8.552259
 -6.643491 -21.765348 -9.509197
 -5.217806 -21.295148 -10.797899
 -5.347621 -21.283243 -10.749761
 -5.115673 -21.792761 -10.496809
 -5.030352 -20.371933 -9.778797
 -5.387676 -20.711760 -9.062929
 -4.749837 -21.504317 -9.190508
 -6.295467 -20.802692 -9.253087
 -4.557166 -19.724653 -8.699359
 -5.695790 -21.769634 -9.547096
 -5.041335 -21.571010 -9.232834
 -4.369559 -20.262766 -8.058071
 -3.288505 -20.640884 -9.774633
 -5.147563 -20.492582 -9.681703
 -4.702495 -21.243969 -9.048962
 -4.876195 -22.722591 -9.210699
 -4.132462 -21.575666 -8.442755
 -5.031892 -23.094103 -7.047406
 -4.347855 -22.891023 -8.674282
 -4.262480 -23.094225 -7.845535
 -4.743715 -22.411507 -6.855198
 -4.105036 -23.458938 -7.152717
 -3.930546 -21.397741 -5.580305
 -4.098248 -21.664779 -7.713973
 -3.757134 -22.838912 -7.371907
 -3.842353 -21.675755 -6.629815
 -1.954557 -23.240379 -6.959315
 -3.359745 -23.796105 -5.570535
 -2.324467 -23.380204 -5.064801
 -3.774713 -22.853945 -2.720149
 -1.614725 -24.369798 -2.160547
 -2.018708 -19.575048 -4.004922
 -2.588814 -22.215026 -5.931762
 -2.204159 -23.500757 -5.437469
 -1.665214 -21.029716 -5.321206
 -1.596532 -22.607294 -5.766398
 -1.466773 -21.084246 -6.181236
 -0.762665 -21.824418 -6.477817
 -0.748162 -23.197157 -5.703024
 0.759867 -22.469663 -3.185075
 -0.362284 -22.743882 -6.725004
 -0.035275 -22.397621 -6.386700
 -0.391791 -21.517472 -5.372689
 -0.098271 -20.742326 -4.793739
 -1.783928 -20.548154 -3.983404
 -0.607079 -22.252511 -4.968333
 0.358527 -20.919335 -4.773601
 0.104990 -22.635277 -5.720205
 0.242380 -22.139537 -4.646583
 0.195395 -20.082299 -3.754320
 1.886931 -21.006975 -6.510663
 1.269716 -21.168439 -6.172934
 2.219254 -20.501776 -4.759897
 1.235223 -21.926320 -5.962339
 0.531393 -20.516409 -5.239245
 1.546581 -21.872321 -5.243141
 1.283536 -20.701086 -5.519441
 0.840728 -22.358296 -5.906823
 0.205288 -22.576956 -5.585490
 0.248930 -22.377027 -5.094622
 0.625108 -18.305095 -2.396782
 0.222378 -20.168473 -3.430699
 0.897783 -21.154756 -4.542372
 0.913303 -23.083579 -4.018837
 0.307562 -22.820853 -2.835254
 0.698622 -22.914222 -2.014923
 1.673855 -22.624023 -2.881098
 1.328027 -22.309714 -3.083340
 1.447643 -23.405363 -2.504348
 0.924810 -22.161762 -0.967287
 2.545548 -21.764278 -1.657937
 2.988462 -22.462737 -1.588361
 3.189559 -21.973549 -0.825990
 3.320717 -22.154100 -0.773744
 3.628332 -21.209289 -0.233628
 3.703063 -21.689806 -1.428828
 3.133859 -21.626047 1.584354
 3.785056 -21.566033 -0.054119
 3.903001 -19.795876 -0.453691
 4.613978 -20.786058 0.431280
 4.949322 -20.263995 0.704198
 3.836687 -16.422918 2.130604
 5.694730 -20.204719 0.917830
 5.720274 -19.359205 1.699775
 6.197538 -18.059394 2.089820
 5.996464 -15.466519 2.051892
 6.625367 -19.208144 2.073562
 6.399016 -19.568547 2.546886
 6.900317 -19.404689 3.107465
 7.348869 -19.575609 3.622683
 6.941865 -19.295281 3.336005
 7.478528 -16.958450 5.684467
 8.157162 -16.644116 3.232997
 7.606738 -18.586119 5.420376
 8.570483 -18.613375 4.062507
 8.727213 -18.595772 4.108025
 8.265524 -17.857792 5.910132
 8.860857 -18.475156 4.012245
 9.330122 -17.848895 4.660779
 7.786996 -16.599477 5.300831
 8.349097 -17.336121 6.085276
 7.152528 -16.905424 6.619015
 8.766438 -18.355895 7.437556
 10.324860 -18.598473 9.602592
 9.408345 -16.520707 11.356458
 11.978973 -17.842312 11.223355
 12.403271 -17.763843 11.113558
 12.300596 -17.540363 10.588378
 12.777152 -17.585608 11.714014
 12.127572 -15.295577 12.446064
 12.274047 -15.118752 11.783670
 13.941168 -16.634055 12.464083
 14.184175 -16.126127 12.764993
 14.191927 -16.487489 12.854283
 14.544681 -16.855373 11.727229
 14.640536 -15.990372 10.413545
 15.339249 -15.993355 12.213806
 14.021476 -15.308165 11.700594
 15.463009 -16.142488 11.716030
 13.690659 -15.093594 14.287395
 15.167582 -16.165228 12.940860
 15.393024 -15.442925 12.774890
 14.755469 -14.730795 14.955228
 15.790983 -15.369834 13.593537
 16.283953 -15.562420 13.761494
 14.856183 -13.772153 12.562199
 15.920615 -14.743456 13.263793
 14.600889 -14.745210 11.358645
 14.306238 -12.625604 11.071008
 14.524919 -13.763974 15.991289
 14.848308 -12.876787 16.010430
 15.945109 -14.659977 15.849666
 16.292180 -14.644379 15.757057
 16.277780 -14.621878 15.713384
 16.597166 -14.261222 14.045940
 15.463681 -13.959982 12.792400
 13.937260 -12.401863 12.385867
 16.603886 -14.642732 14.509873
 16.286155 -14.601401 15.960221
 16.092344 -12.600327 15.171761
 16.091324 -14.094044 16.443381
 16.885065 -14.283392 15.411938
 16.236196 -14.721422 16.927523
 16.102008 -14.507698 16.348969
 16.519846 -14.474774 16.574510
 16.074000 -14.573004 16.636513
 16.921536 -13.686644 15.580989
 11.717920 -11.897464 15.158024
 15.701681 -14.953517 15.800488
 16.849013 -14.705678 16.444318
 15.590070 -11.803372 14.105727
 16.848440 -14.018956 16.770492
 17.353317 -12.069682 15.130303
 17.285913 -13.483430 16.353532
 17.006863 -13.522612 17.006099
 16.848483 -13.850715 17.646663
 17.539861 -13.146198 15.817198
 14.755743 -13.220650 16.453484
 14.716565 -10.684594 14.398195
 17.442088 -12.912591 16.656470
 17.387376 -12.355338 17.587118
 16.705787 -12.126700 19.240897
 17.754026 -12.401140 18.590218
 17.439521 -11.896107 19.090760
 16.149213 -10.614141 20.952587
 17.515127 -11.607856 18.525268
 18.878391 -10.774083 15.570035
 17.464928 -11.757728 18.681635
 15.642499 -9.576374 14.661710
 14.479785 -9.209488 14.154785
 18.091302 -12.505292 17.313735
 18.539710 -10.905155 16.811849
 18.111735 -12.007979 18.396138
 18.189753 -12.914502 16.659576
 18.297361 -13.201337 16.233328
 18.306211 -9.801308 16.127708
 18.026595 -11.058732 18.402236
 17.235937 -10.676092 20.560012
 18.208378 -11.469528 18.655711
 16.287574 -10.511620 20.628856
 18.429016 -10.766176 18.182636
 18.583833 -10.429402 18.780255
 18.146350 -9.663569 19.402423
 18.776113 -9.285139 19.223398
 17.444175 -7.866847 20.219902
 18.632158 -10.185935 17.052607
 19.985332 -8.208516 16.372856
 19.787512 -9.495475 18.335204
 19.832147 -9.938864 17.859017
 17.854305 -9.427457 19.334635
 19.418650 -9.412036 18.064365
 19.381125 -9.493917 16.361398
 20.534340 -9.859320 16.324307
 20.356887 -8.492649 18.289237
 20.882329 -9.286386 15.046285
 21.401783 -7.522248 13.664929
 21.935048 -10.299365 14.293631
 20.274830 -9.745767 14.921155
 20.698659 -6.911780 16.311065
 21.360135 -7.897924 14.754525
 21.932112 -7.294490 14.767030
 22.067886 -7.025082 13.720501
 19.774223 -6.830236 12.496741
 20.278224 -7.493849 12.738867
 21.558095 -5.656800 13.314970
 23.573480 -5.958750 12.705509
 23.933618 -4.983166 11.833065
 23.899144 -5.771495 11.136423
 23.839067 -5.413007 11.564288
 22.662260 -5.165751 10.830308
 24.298065 -4.413902 11.834749
 24.211660 -4.084081 11.006657
 24.147905 -3.730369 9.198548
 25.000000 -3.691211 9.587876
 24.943376 -2.780228 9.931262
 24.706558 -3.176689 8.700656
 23.929676 -1.487184 10.486348
 24.635520 -2.587441 7.613051
 24.739239 -1.901720 7.722558
 23.959582 -2.005509 7.469133
 20.696272 -3.080635 6.085275
 23.491532 -0.495968 6.474306
 23.305630 -1.406467 6.451103
 19.715548 1.185249 8.671807
 22.867906 0.263564 7.015579
 23.329873 0.608967 6.345363
 22.925116 0.291541 4.839586
 23.376706 -1.740543 3.867455
 24.032315 -0.276446 6.258575
 22.852812 -1.035831 3.912255
 23.011235 -0.002285 5.140303
 23.730757 0.284216 4.209456
 22.490504 0.788775 5.702300
 21.156568 -0.138396 3.741179
 22.962652 -1.539372 2.445586
 21.429032 -0.370514 2.225604
 23.647049 -0.304794 2.631558
 22.758703 -0.033166 2.210699
 24.050034 0.051621 1.934560
 22.089882 0.323310 1.516003
 21.875536 1.192313 1.257772
 21.721697 0.881695 1.593182
 20.704646 0.688458 0.447320
 22.874241 0.083487 -0.211893
 22.923503 0.916262 0.570079
 21.588513 0.405155 0.324901
 21.707193 1.440479 1.842520
 22.239715 1.228546 0.828319
 22.059311 -0.379061 1.054425
 22.072389 1.762466 0.111462
 18.142116 0.125960 -0.703895
 22.111282 1.265097 -0.474569
 20.863564 1.760554 -0.019773
 20.576003 2.523682 0.386914
 20.049681 1.180215 -0.554438
 21.558848 2.455410 0.004068
 21.663170 2.153639 -0.125938
 21.539467 2.665087 -0.322690
 21.377449 2.709921 -0.030379
 19.911950 2.142315 -0.603543
 20.092432 3.162132 0.647053
 18.565563 2.417533 0.136470
 13.561416 0.766719 2.221965
 16.956567 3.264477 -0.748795
 19.215149 3.307320 -0.352302
 21.147754 2.302363 -2.569627
 21.474765 3.128795 -2.635581
 19.853327 2.300816 -3.153789
 20.486083 1.796671 -2.035242
 20.292213 3.029619 -1.486955
 20.692699 2.884603 -3.406486
 20.997228 2.887304 -1.966686
 21.561982 3.018014 -3.551137
 21.084908 3.962318 -2.313058
 21.571799 3.754692 -3.920897
 20.572565 3.037999 -4.129041
 21.152893 2.972240 -3.475755
 21.390922 2.355607 -3.788064
 19.909881 1.956699 -3.967139
 19.559784 3.672003 -1.476691
 22.398633 3.357206 -3.958366
 21.047863 2.589919 -4.381945
 21.464436 2.059341 -4.683033
 21.877509 2.645766 -4.035643
 22.590230 3.612545 -3.718479
 21.581509 2.640223 -5.411413
 22.525887 3.546492 -5.146387
 22.594569 5.116109 -3.415532
 22.550670 5.153149 -4.834098
 22.591421 6.021957 -4.775169
 23.341645 5.602774 -5.202794
 22.343716 6.931979 -4.117276
 22.818443 6.851204 -5.481231
 23.101311 6.764187 -5.494203
 21.891517 7.439178 -3.907993
 22.229101 6.789761 -6.092323
 21.867519 7.092834 -5.179429
 21.878549 8.394871 -4.650397
 21.747676 5.726968 -5.329654
 21.344569 5.511505 -7.009515
 22.643860 6.037528 -7.164788
 22.595742 7.590157 -5.940398
 20.397915 4.332897 -8.990429
 22.459058 6.965050 -6.787464
 23.041678 6.084220 -2.848476
 22.483701 7.018895 -6.806559
 23.365502 6.623063 -7.644426
 21.147366 7.510439 -5.754246
 21.926093 6.253912 -5.952498
 21.701897 6.026359 -7.745029
 22.072322 5.963979 -5.585316
 23.264697 6.365597 -7.517571
 22.018006 5.488791 -8.555529
 21.425387 5.441940 -7.190033
 22.161064 5.891707 -9.228260
 22.449155 5.247148 -9.803176
 22.989573 6.168035 -9.168164
 22.515071 8.199447 -8.426270
 20.250632 6.439314 -8.951766
 21.399472 8.820997 -8.530944
 21.223205 9.178882 -9.274396
 21.944136 8.761653 -10.681224
 22.142663 9.833251 -10.048703
 21.859149 9.015648 -9.381936
 22.475623 9.536864 -10.694157
 22.267543 8.436237 -10.531877
 20.504885 9.308320 -10.321493
 20.141361 8.933189 -10.688797
 20.036669 9.132292 -10.076629
 19.445990 8.737436 -10.496340
 20.667279 9.789209 -10.991770
 20.564605 9.421581 -10.476802
 20.172153 8.648229 -9.201310
 20.563231 8.011583 -9.907862
 17.789431 8.443304 -7.333704
 16.234934 7.322304 -8.839709
 20.189991 9.764612 -9.694341
 18.736185 8.819059 -11.279238
 18.582142 9.812513 -8.923951
 18.338997 10.617892 -10.907928
 18.916331 10.748662 -10.050613
 19.469124 11.868217 -11.905311
 19.199172 11.285445 -11.423037
 20.206792 12.179797 -11.173686
 18.288778 11.417751 -11.162623
 18.454780 10.960706 -10.942009
 19.800794 12.585812 -11.943132
 19.327726 12.979786 -12.516794
 19.734261 12.415503 -12.335988
 18.956210 12.664400 -13.156763
 18.071955 13.224063 -10.655909
 18.163948 11.214036 -10.336563
 18.446940 11.598014 -12.178352
 19.222151 12.519335 -11.156942
 17.733289 13.311142 -10.746888
 18.562031 13.175553 -11.676992
 17.776585 12.690547 -11.024237
 18.018381 12.176932 -11.224235
 17.381235 12.186342 -9.998651
 15.795355 12.947033 -9.523115
 17.125985 13.659545 -12.398022
 16.865390 11.929817 -13.556132
 16.172762 12.394996 -11.937101
 17.871527 13.009321 -12.945547
 17.819350 12.993290 -11.608531
 16.857149 14.616779 -13.275787
 16.744703 14.832125 -12.848560
 16.138860 15.451439 -11.958600
 16.601101 15.497620 -11.267327
 16.314833 16.188727 -12.806836
 15.633627 15.857196 -12.433218
 16.089821 15.945707 -12.155676
 15.684355 14.865087 -11.666864
 13.584470 13.259891 -9.215081
 13.405277 14.473905 -10.237794
 15.188930 14.029181 -9.264484
 14.492055 14.124908 -10.234614
 14.446997 12.708149 -10.813104
 14.872801 15.155901 -11.577381
 14.354960 15.203404 -11.283575
 14.339744 15.533339 -12.132681
 14.014582 15.400362 -11.940110
 13.592970 15.906650 -12.585348
 13.168148 15.580926 -11.613738
 13.645626 15.444930 -10.999544
 13.428288 16.148571 -12.312556
 11.814524 14.824155 -10.157646
 11.025869 11.237625 -6.817447
 11.788528 13.497950 -10.028554
 11.739241 12.644807 -10.596214
 11.327632 12.435963 -10.700221
 11.233581 11.801412 -9.113110
 11.029814 11.872320 -10.680271
 8.731792 9.354928 -7.398320
 10.146053 11.514776 -10.285946
 10.711391 12.546534 -11.767267
 9.545531 11.106378 -10.024645
 10.585024 12.871884 -10.805363
 7.171729 8.208073 -5.223815
 10.415174 12.176036 -9.464547
 10.379034 12.802069 -11.568599
 9.800271 11.854895 -10.724082
 9.429685 13.053173 -11.518071
 9.828234 12.714054 -11.568172
 9.966582 11.620453 -10.469896
 8.197801 9.491783 -10.154256
 8.848928 10.401534 -11.158134
 8.065207 11.007256 -11.887061
 7.976719 10.166322 -10.812520
 7.865450 10.508029 -11.608967
 7.634241 10.677295 -11.472176
 7.828956 9.831973 -10.821357
 7.904882 10.699709 -11.484179
 8.162414 11.532575 -11.722870
 8.213420 11.193396 -10.777117
 8.744518 11.334784 -8.306165
 7.947795 13.190824 -10.512780
 6.658629 11.722168 -10.511231
 7.033391 10.833450 -7.825022
 7.625857 14.006021 -11.507961
 7.281942 13.568445 -12.216606
 7.363592 14.209212 -10.968270
 6.874929 13.115256 -11.443221
 7.484408 14.693942 -10.491998
 7.181358 14.117327 -9.424378
 7.342760 14.254494 -10.951939
 6.500790 14.374732 -10.687086
 7.359676 15.428761 -9.640021
 7.064125 13.864318 -9.736539
 5.839956 15.126282 -9.376615
 5.959187 15.372462 -9.918624
 6.034138 14.853392 -10.789202
 6.058738 15.019413 -10.388841
 5.579411 14.991096 -8.868619
 6.163979 16.560597 -10.130605
 7.199180 15.295258 -8.144767
 5.598779 16.158275 -9.996999
 6.073575 16.203352 -9.686436
 5.959236 16.135580 -8.652748
 4.581656 9.385859 -2.807766
 4.075950 10.125507 -5.017720
 3.617640 12.317780 -7.624443
 3.841630 13.749852 -7.951046
 2.556255 13.708681 -10.582694
 2.690432 13.650381 -9.467382
 3.191918 13.438720 -9.475874
 2.826583 13.748487 -9.297095
 3.569663 14.699166 -8.165501
 3.221110 15.225790 -8.186749
 3.979943 13.660691 -5.579568
 3.454919 14.676007 -8.740309
 3.764376 15.953900 -8.642115
 2.727135 14.836061 -8.304349
 3.834389 13.700333 -6.423785
 3.289048 16.468978 -8.015962
 3.268915 16.519793 -8.908745
 3.262512 16.088324 -8.288190
 2.973356 16.989780 -8.176884
 2.453884 15.704442 -7.750440
 3.139674 14.557951 -6.238787
 1.755026 15.598678 -8.778711
 1.818264 14.884736 -8.265771
 1.122367 15.715823 -9.210893
 0.867148 16.388254 -9.153980
 0.847215 16.605639 -9.145993
 0.672041 16.573188 -9.426630
 0.507084 15.298605 -9.272823
 0.960950 15.096214 -6.504022
 1.225859 16.707947 -6.735038
 0.299536 18.348830 -8.951884
 1.241463 19.441907 -8.221579
 1.052560 18.050097 -9.801761
 0.895114 18.981187 -7.379080
 1.347421 20.013242 -7.688184
 0.929381 19.333265 -6.960826
 -0.327679 17.995908 -9.034175
 0.945256 16.779486 -4.749867
 0.473564 18.767811 -5.758698
 0.100126 18.350966 -6.626907
 0.501646 16.106358 -5.358796
 0.004496 18.740966 -4.794632
 -0.438249 17.096217 -5.751400
 -0.902350 18.531717 -6.415043
 -1.643275 18.831996 -6.941911
 -1.225709 17.820713 -7.485934
 -1.116307 18.556501 -5.706121
 -1.225454 18.118039 -5.807833
 -1.409986 19.401850 -5.638119
 -2.582321 18.924648 -6.803709
 -0.964210 18.120111 -4.774125
 -1.543709 19.123959 -4.781135
 -2.229031 19.247717 -5.781142
 -2.304291 19.897061 -5.618592
 -1.362959 20.108241 -4.301406
 -3.229102 21.777974 -6.007096
 -2.368964 19.723753 -4.553270
 -3.307285 20.768382 -4.725472
 -3.094699 21.113841 -4.326444
 -3.075931 21.377921 -5.495251
 -1.458292 18.522040 -3.321655
 -1.663522 23.159874 -3.996828
 -1.638232 22.875903 -2.246467
 -1.163234 20.239683 -1.716441
 -2.269597 23.172114 -2.135503
 -2.415629 23.621480 -2.264561
 -2.776702 23.374290 -2.965048
 -2.696446 23.243523 -1.184513
 -2.450660 23.270685 -0.514908
 -1.990193 23.073105 1.212432
 -3.143785 23.874516 -1.380576
 -3.511350 23.684603 -1.382526
 -3.682500 24.049383 -0.913328
 -3.777234 22.688970 -0.706549
 -2.698406 22.731186 0.727889
 -3.777486 22.395185 0.316407
 -4.855387 22.661051 0.139253
 -4.653201 22.085604 0.352233
 -5.707682 21.965075 0.114804
 -4.161340 23.501965 0.260867
 -4.958694 23.372541 1.051899
 -4.964732 22.679408 2.346998
 -4.594348 21.532943 2.123700
 -4.467034 22.450565 2.775808
 -5.197435 23.093312 2.960365
 -5.415948 21.853148 1.412818
 -5.654003 21.972826 3.117211
 -4.462535 18.026582 4.233555
 -4.487347 17.611449 4.662643
 -5.598521 19.530521 6.215703
-3.434681 14.626950 7.743150
-3.060433 14.251814 9.337074
-5.419773 15.016930 8.396808
-6.041569 14.415674 8.383088
-6.725167 15.973755 7.374371
-7.058662 14.331934 6.961284
-6.889378 16.379418 9.088639
-6.728287 16.056095 9.345728
-7.656573 16.409928 5.818869
-7.621514 16.539592 8.000089
-7.848795 17.604539 8.428636
-8.654656 18.776471 6.959865
-8.523918 19.194245 7.527605
-8.818342 19.209068 7.528604
-8.461339 18.934408 8.044890
-8.080835 18.287192 8.561806
-8.882616 17.639677 7.763141
-9.053899 19.322185 8.456269
-8.438673 17.867906 7.781272
-8.977955 19.440250 7.524347
-9.689528 19.293217 8.176858
-9.967978 18.806875 7.166946
-9.932708 19.600326 8.043357
-10.322832 19.139335 4.739792
-9.732805 18.659088 8.742616
-10.204762 18.533024 8.732651
-10.296812 19.121376 8.679428
-10.645020 18.679205 7.615999
-10.474499 19.045101 8.391414
-10.914296 18.080497 8.064067
-9.819989 19.085767 8.651040
-9.998606 18.486038 8.428655
-9.716832 18.354174 8.902600
-8.960403 18.025932 8.183827
-9.483612 17.790168 7.782072
-9.710974 17.889925 8.236826
-6.725133 13.603268 6.033750
-8.398653 14.476316 12.010112
-9.747909 17.629238 10.424342
-8.821501 16.593592 7.311966
-8.941913 16.792433 10.701354
-10.709335 17.678740 9.670984
-9.503790 18.737260 7.763618
-7.177438 15.117478 9.388340
-9.826145 18.338252 7.798108
-11.071683 16.458083 7.814387
-9.796437 15.378455 9.710339
-11.689049 17.015686 9.424787
-12.199300 17.557204 8.322492
-11.841631 17.407302 6.230201
-12.224403 17.346218 7.717007
-12.136016 17.112770 7.855187
-11.856483 17.309327 10.267346
-11.938854 16.519931 9.572721
-11.920336 14.991179 8.515183
-11.028657 16.003753 9.059695
-10.924041 14.248189 8.231781
-13.264821 16.050070 7.063771
-13.012942 15.643697 6.557783
-13.736243 15.902200 6.722178
-13.484791 15.617053 6.084546
-12.811209 14.935747 6.339179
-13.710384 16.059041 6.213149
-12.786760 13.744493 5.030386
-12.437030 14.348557 6.109209
-8.543658 11.086438 7.498112
-11.401404 12.026135 8.459500
-13.002870 15.471600 7.622040
-13.286036 14.849771 8.723486
-12.971358 14.659286 7.756774
-12.930084 15.638024 8.575632
-11.818074 11.621957 7.372477
-10.314146 10.162124 8.569631
-10.141546 10.704447 8.987435
-13.415841 15.196195 10.711243
-13.617539 14.918976 9.264010
-11.649016 13.529329 8.876898
-13.470903 14.822916 8.945145
-13.901889 14.374246 9.843616
-13.238436 14.644455 9.295350
-12.696675 15.634080 7.420552
-14.293155 13.849180 9.186882
-14.751929 13.179291 8.002243
-14.517609 13.248166 8.630309
-14.667943 14.537290 8.119573
-14.359825 15.108814 6.952574
-14.570276 13.106506 9.917935
-15.279993 14.080905 9.477783
-15.183547 14.498399 10.572787
-14.391971 12.851379 11.302122
-15.793534 15.426300 10.181661
-16.231859 14.359939 10.987296
-15.168477 12.807942 11.599982
-14.636933 10.792510 9.522780
-14.320216 11.578101 13.060327
-12.570074 9.650128 13.233130
-13.308981 10.449823 13.015361
-12.858094 9.376392 13.417231
-12.885085 9.354313 13.188031
-12.797325 9.408212 11.702575
-13.315202 9.957307 11.955746
-8.230750 5.169926 10.010179
-11.306090 7.589093 12.378456
-13.179969 9.964253 11.504666
-12.324651 9.148765 11.813928
-12.649149 8.620306 12.590674
-12.635566 9.009389 12.812779
-13.442977 10.116819 11.667770
-14.628228 9.460425 12.151322
-14.588214 9.549676 13.104034
-13.189522 9.334954 12.127409
-15.027981 9.302582 12.067599
-15.597800 10.176051 11.507861
-13.052498 9.941097 10.877367
-16.162734 10.122504 10.355185
-15.847352 10.201465 9.639209
-14.497785 9.143084 11.932517
-15.221063 10.311642 10.863495
-16.576301 9.817683 11.498000
-16.998107 10.866393 10.134538
-13.154487 8.265852 8.996290
-17.006438 9.313441 10.630234
-17.169838 9.798835 11.626729
-17.722541 9.488942 11.260388
-17.727933 8.673385 12.123719
-18.390392 9.883252 7.384862
-16.309063 8.616718 9.440730
-15.632452 8.467289 8.468754
-17.544899 9.223291 8.819356
-17.950461 8.590742 9.945690
-18.026332 9.708680 7.284346
-17.822830 10.120539 7.183306
-18.136192 9.310933 6.945055
-17.609313 9.551732 8.535843
-18.078386 7.893077 9.727489
-17.330862 8.222258 10.390295
-17.462251 7.315577 9.466507
-18.593181 8.741481 8.701236
-17.869635 8.412705 8.313760
-17.981990 8.093291 8.829555
-17.394589 7.408534 8.989743
-17.429976 6.493790 9.459751
-16.275121 6.661887 10.055486
-16.709163 6.386768 9.363078
-15.202265 6.303976 9.453168
-17.393279 7.664646 10.080979
-18.488166 6.679855 10.080769
-15.768082 6.111975 12.497997
-14.057329 4.521322 12.837019
-15.297676 5.484705 12.610580
-15.818611 6.345545 11.692472
-14.756715 5.219487 11.448949
-16.498451 5.383793 10.745740
-15.818201 5.460988 10.172608
-11.820721 3.408859 10.376281
-17.697134 5.751451 8.318703
-18.515602 6.342413 7.231805
-19.707907 5.135681 8.055632
-20.516980 6.061499 7.132474
-17.669537 4.438529 8.572564
-20.842673 4.601331 6.027542
-20.458933 4.691669 7.012718
-19.752994 4.874809 5.754554
-17.880123 3.753544 6.184817
-18.718230 2.957289 5.344064
-21.034906 5.118241 6.091291
-17.591966 3.939914 8.449063
-19.062688 4.846601 4.691180
-20.892740 4.632279 3.857063
-20.325448 4.157885 3.885543
-21.136105 4.548181 4.347398
-19.064883 3.911280 5.365410
-21.828914 3.874903 3.915540
-20.224920 2.603063 6.394793
-22.720421 4.305627 5.692877
-19.924303 3.887986 5.276267
-20.649853 3.701761 5.057209
-21.081962 3.332903 6.598884
-20.051085 1.957669 7.610171
-18.820887 1.484224 8.246021
-22.054358 2.273131 6.453149
-19.582073 2.157480 8.844913
-22.192029 2.096192 6.281314
-21.042945 1.761795 6.433002
-20.801812 1.619273 4.554483
-22.129550 2.462214 6.075423
-22.216573 2.718819 5.232380
-22.588318 1.443537 7.488421
-22.904173 2.103540 6.051606
-21.394874 1.686094 6.059639
-22.424049 1.016318 5.740078
-20.979499 1.699201 6.949898
-22.420293 1.465288 7.027510
-21.727763 1.038142 8.291142
-22.707867 1.439817 4.835962
-17.289569 1.506321 3.020178
-20.351705 2.091784 2.230211
-21.430491 1.757519 2.855002
-20.687412 0.658488 3.532455
-22.329010 1.320427 1.924191
-21.817970 1.699965 2.263233
-22.596964 0.486633 4.087193
-23.061039 0.920321 2.564060
-23.657037 0.317825 3.952049
-24.072023 -0.295741 3.505256
-23.219195 0.061122 4.077985
-23.438351 -0.086655 3.329443
-22.701501 -1.101139 4.432560
-22.560053 -0.736915 3.476687
-23.369069 -0.427466 0.385151
-24.350089 -0.278523 0.982770
-22.383364 -0.275245 1.244598
-20.826136 -0.051480 0.192495
-22.039704 -1.518683 0.931179
-22.844925 -2.019347 -0.800245
-21.536801 -1.462867 0.114716
-23.554855 -2.126432 0.815889
-23.428234 -1.415413 0.295700
-21.970558 -1.351096 -0.668223
-20.170458 -1.518956 -0.888343
-22.331027 -2.065042 0.296972
-23.098980 -0.856239 -1.575403
-20.614491 -1.420932 -1.425024
-20.966390 -0.974588 -0.915569
-21.974128 -0.457700 -3.414775
-18.751463 -1.157060 -1.708257
-20.836549 -0.750483 -2.485725
-18.700329 -1.761055 -1.240946
-19.806379 -1.215417 -0.830220
-21.080185 -2.000777 -2.374150
-18.399487 -1.435447 -3.231415
-18.921920 -2.979412 -0.985275
-21.296219 -2.615231 -1.731093
-20.065445 -3.008890 0.233285
-17.755461 -1.961739 -1.081712
-19.479315 -2.940133 -0.639996
-20.278421 -2.773049 -0.854406
-19.560600 -2.840429 -1.860684
-19.268677 -4.163792 -1.251990
-19.282518 -3.973381 -0.596267
-18.955576 -3.910100 -0.209709
